# .PCD v0.7 - Point Cloud Data
VERSION 0.7
FIELDS x y z
SIZE 4 4 4
TYPE F F F
COUNT 1 1 1
WIDTH 2000
HEIGHT 1
VIEWPOINT 0 0 0 1 0 0 0
POINTS 2000
DATA ascii
2.0640 1.8508 -1.0736
-0.4935 0.9332 1.8893
0.9372 4.1449 1.6764
-1.2376 0.0888 0.9175
-0.0645 0.3467 0.0572
-1.6388 -2.2375 1.4404
-0.3931 -0.0760 0.6149
-0.0895 -3.6456 0.8817
4.6603 -0.2828 -0.3087
-0.9323 0.7203 -4.4827
1.7966 -4.2240 -0.8417
0.5289 -0.0683 -0.8014
-1.4690 0.2238 -0.2995
0.1844 -0.3247 -0.1999
1.0094 0.8806 -2.7881
-0.0880 3.8268 2.3753
1.8373 0.4594 -2.3555
-0.3943 0.3008 -0.1319
-1.3848 2.0700 1.3245
1.8647 0.8553 0.1754
-0.7830 -0.7830 -0.1241
0.7348 -0.0483 -0.1639
0.9358 -0.5677 -1.9818
-0.1271 -0.2990 0.5184
0.3497 -2.3137 -1.7682
0.0689 0.1075 0.0586
-3.0248 -1.9091 1.3235
-0.0211 0.3724 0.1695
-0.6778 1.3006 0.4561
-0.2363 -0.3305 -0.1540
-0.6290 1.7923 1.4442
-0.0948 0.1217 -0.5934
-0.8060 -0.5859 2.4903
1.8653 -3.5508 -0.2621
0.9807 0.0360 -1.6011
0.2461 -0.1794 0.0157
1.8814 -0.2763 -3.4115
0.2791 -1.7342 1.8666
0.1814 0.1115 0.4223
1.3592 -0.7278 1.5305
0.4205 1.4659 0.7257
-1.1134 -0.6426 -2.1629
-2.3694 -0.0683 0.6257
-1.4006 -1.9493 1.7369
-0.0001 0.0570 -0.0800
-3.1624 -0.6894 -1.1742
1.8099 3.3610 -1.1255
4.3594 0.9518 -0.4830
-0.2377 0.0587 -0.5176
1.2309 -0.7573 -0.1118
-0.7745 -0.6455 -0.0528
0.3593 1.0666 -0.3560
0.3822 0.2608 0.0034
0.4266 -1.3706 -2.2040
1.2766 2.1919 -1.6899
-0.0168 0.0376 0.0168
2.4521 -2.4900 1.8735
-0.5996 -0.6204 1.5018
-0.1096 -0.6432 0.1984
-1.5291 2.4946 2.1794
2.1681 2.3978 1.7281
-0.2323 1.4020 4.4516
-0.2399 3.1485 -1.1959
0.8402 1.2157 0.2329
-0.0937 0.4609 -0.4517
3.1633 -2.4296 -1.3260
2.7514 2.4433 -0.2308
0.2731 0.1447 0.7518
0.0474 0.2429 -0.0003
0.3607 -1.2862 -1.2501
0.1915 1.3119 0.1843
0.3747 -0.1757 0.0674
-0.7790 -3.9771 0.3011
0.2795 -0.1609 -0.2608
4.0382 1.3361 0.3518
-1.1296 2.7945 -0.1833
0.6590 -0.0184 2.4120
-0.0084 -0.0841 0.0279
0.6378 -0.2203 -0.6784
0.0333 2.3669 2.2443
3.4902 -1.3455 -1.2588
-0.2409 -2.1715 1.2846
0.0252 0.3347 1.3375
0.4620 2.5387 0.8812
-3.2267 -0.3008 3.3034
-0.4286 -0.1077 0.1698
2.4408 1.1580 3.9119
1.6668 -0.1108 0.9951
-1.4425 -1.2536 0.8737
2.7179 0.3325 0.3502
-0.1544 -2.1408 0.2782
0.2018 -0.2655 0.0400
-0.3361 0.3604 0.1122
-0.1744 -0.1506 1.0324
-1.2834 -2.1095 2.0454
-2.4179 0.5127 -2.3881
-0.7851 -0.7996 -0.1284
-0.6844 -0.7815 2.3030
1.3400 0.6455 0.3227
0.5565 -3.1338 -1.5334
-0.0673 -0.8425 0.2506
0.3384 -4.1137 0.8763
0.3217 0.3692 -0.2089
-0.3038 -0.0818 1.3648
-3.1224 1.4830 0.0844
0.8390 2.3071 -3.2701
-0.9663 3.8676 0.1902
2.4596 -0.2071 0.7463
-0.8703 0.4880 -1.0254
-1.0363 -3.1165 -0.5239
0.4983 -0.0182 3.2492
0.3265 0.1580 2.1778
-0.0754 -0.1347 0.1450
-1.4466 1.1351 1.2528
3.7149 -1.7219 1.1697
2.2166 -3.7679 1.9510
1.6288 0.4482 -1.6676
-0.0422 0.2230 0.3093
1.2714 -1.1494 1.0336
-0.1037 -0.6784 0.2945
1.2784 3.3899 -0.7246
3.6013 -1.1418 1.1546
-0.0116 -0.0173 -0.0282
-1.5596 0.9898 3.4568
-0.2087 -0.6945 0.1940
3.3619 -0.5555 -2.4948
0.8164 0.5529 -0.3044
-0.1011 0.4582 -0.4469
-0.2986 0.5197 2.3183
2.4588 3.2031 0.5722
-3.0808 -3.6272 1.4604
1.3544 -2.7407 -3.1589
0.8520 -0.9160 0.8394
2.2104 3.6848 0.0726
-0.3503 0.1321 -0.6765
0.6204 -2.7378 -3.4662
-2.4182 2.4554 -2.3537
0.1573 -0.2274 -0.2223
0.0286 0.0192 -0.0869
3.8965 1.1772 1.9191
-0.6273 1.9289 1.2218
0.0338 -0.1273 0.0367
-0.6501 -2.3747 -0.0286
0.3250 0.8076 -0.0360
-0.1139 -0.0583 -0.0534
-0.2682 0.3166 0.2628
0.2830 -0.9204 -1.4654
-0.3494 2.8873 -2.4251
-0.1172 -0.5746 -0.3131
2.1408 3.5807 0.0067
-2.0612 0.9340 1.8281
3.2135 -0.7853 -1.8442
0.5436 2.1285 1.2142
-1.7047 0.7084 -1.6209
-1.1628 0.2931 3.8259
2.9805 -2.9175 2.3036
0.6856 -0.3609 0.6077
1.3728 2.3899 -3.2991
-2.5406 -0.9908 -0.7989
1.1107 0.9641 -1.7196
0.3482 3.2012 1.4527
2.0230 0.8559 -0.6196
2.9557 0.9911 -0.5664
2.5291 1.3363 0.2601
0.1598 0.3770 1.3865
1.5453 0.8724 -0.4284
0.0758 1.2051 -1.3058
-0.3221 -0.2649 -0.2334
3.7900 -1.3680 2.8490
-1.7360 -0.1206 -0.6826
-1.1819 -0.7067 -1.7297
-0.2990 0.0468 -1.3721
-0.2369 0.2106 0.0721
0.8729 0.1433 -1.3955
0.3505 1.6884 -0.8388
3.6677 -0.8422 1.1180
-0.2251 2.1064 -0.4190
0.5709 2.7404 0.6293
-0.0572 0.0095 -0.0271
1.9997 2.0523 -2.6741
-0.5746 -0.9873 -1.6744
1.0206 0.7631 -1.8547
1.9216 -2.5295 -0.2047
2.7822 -1.4446 -1.8802
0.9304 -1.8453 -2.7019
1.6564 0.2251 0.1486
0.9911 -0.8412 4.5710
0.5216 0.2703 -0.5125
0.1335 0.3414 -0.1444
-1.8031 -0.7359 -2.8257
-0.3006 -0.6904 -0.0197
1.9424 1.1628 0.2396
2.4722 -2.6476 -0.2652
1.9697 -0.7535 -0.2072
2.4542 0.7725 2.0163
0.0562 1.4976 -1.3542
-0.8107 1.2003 -0.6606
1.4996 2.8094 0.5234
0.3900 -0.3688 0.7094
-1.6524 -0.3815 -0.9334
-1.4820 -0.6777 0.3262
-1.8538 0.1513 -0.0389
-0.2925 0.1550 -0.2587
-0.0797 -0.5623 1.2378
2.0800 -2.0197 -0.4006
0.9143 2.4275 -3.3587
-1.3922 1.8553 -0.7988
-0.7593 -1.7122 -1.5375
-1.1822 -0.0839 0.5592
0.0484 0.0349 -0.0607
-2.5562 -0.4453 -0.2760
-0.2736 -0.2442 0.5235
-0.3224 -3.1522 3.4838
0.6485 -1.2424 -1.2205
0.0452 -0.0856 0.1874
-1.7054 0.5863 0.4758
-0.5710 -0.1200 1.3120
1.7597 -1.3825 1.9919
-1.4224 1.7710 -3.4529
-0.0271 -0.0134 -0.0159
0.9561 -0.2702 -0.7606
-0.8327 1.4416 -0.7204
-1.4495 1.6724 1.1691
1.4264 1.6178 3.0187
0.9565 -0.0863 0.9053
-1.6733 0.9613 3.1374
-0.2311 1.8177 -1.9001
1.2211 0.4551 0.7860
0.7154 -0.2577 1.5621
-3.7493 -1.1792 -1.2139
-1.1896 1.1053 3.2743
0.2812 -1.0628 -1.1204
-1.9504 -1.3090 -0.6496
3.4314 -2.5040 -2.3913
-0.4436 0.0013 -0.7115
-1.7254 -1.0435 1.1084
0.0909 0.0500 0.1770
0.3713 3.1913 0.5934
-2.0914 -2.2316 -2.3539
-1.9143 1.5177 3.9463
0.3697 -0.2158 0.2829
0.0471 -0.0948 0.0483
-0.3746 3.4991 3.0533
1.2062 2.7690 -1.7845
-2.8331 1.2987 1.4097
0.3321 1.8289 -4.5717
-1.3519 -2.3796 3.0610
-0.1835 -0.0489 2.4267
-0.0376 -0.1558 0.1719
0.4867 -0.1549 -4.1085
-1.6312 -1.0505 0.0731
-0.1181 0.0541 -0.0755
2.0659 2.3681 -2.6038
2.0771 -0.6868 -2.4467
-1.5229 0.9358 0.7927
-3.6946 -1.9787 -0.8176
1.1035 0.2182 -3.0925
-0.4735 -0.5947 -1.7164
1.6989 2.0393 1.0187
-0.0885 -0.0743 0.1466
0.8726 4.2820 -0.9264
1.2649 -2.4421 3.0151
0.5884 -1.1354 1.3926
0.1444 0.9475 -0.4944
-1.2063 0.1956 0.6855
0.0622 0.1093 -0.1862
-4.5779 0.1154 -1.1040
-3.8674 1.6569 0.3619
-0.6586 -0.1417 -0.8199
-0.7282 0.1189 1.8544
2.7579 2.6537 1.4194
-0.6021 -0.2689 0.1011
-1.5720 -1.9826 -1.8320
0.6138 0.1607 0.0334
-1.7122 -1.3652 -1.8731
-0.2444 -0.1106 0.1351
1.5714 -0.2410 -3.5829
0.9788 -0.5662 -1.6588
0.3816 -0.7330 0.0182
0.5596 0.5750 0.4202
-0.9397 -1.5065 2.4729
-0.1032 0.3179 0.4573
1.2859 0.4109 -1.8085
2.1532 4.0002 1.2506
0.0014 -0.0133 -0.0072
3.4137 1.2020 -0.6682
1.2718 -0.8030 0.1124
0.4291 2.1267 1.2534
0.2713 -0.2848 -0.0290
-2.7946 2.9611 0.2043
0.5398 -1.1116 3.9595
0.2720 -2.0739 0.3855
2.4439 -0.4385 -0.5111
1.7310 -1.8183 -1.2837
0.3709 1.3117 -0.8137
-2.9771 1.2709 -0.4448
-1.5866 1.4843 0.4754
-0.3038 0.1847 0.3430
-1.5399 -1.9937 -3.4226
0.1703 2.7579 -0.9427
1.7531 -0.9674 1.6724
-0.5612 1.4266 1.3077
-0.0839 1.1719 0.8906
4.8703 0.3984 -0.8405
1.7911 0.1471 0.3487
-0.0599 -0.7785 0.0327
1.4452 0.7278 0.9238
1.6361 -0.6265 2.6427
-0.0061 -0.0094 0.0147
1.8307 -1.6643 -1.0894
-0.0007 -0.2706 0.6859
-3.0646 1.1108 0.3579
1.9251 0.4652 0.6660
-0.7654 0.9763 -0.8255
-0.1346 0.1720 0.0654
-0.9427 -0.8315 3.1150
-3.8283 1.9838 2.0472
-0.2695 -1.1876 -0.5966
-0.4740 -0.2807 0.9295
0.7619 1.2802 0.1843
2.1222 -0.7069 -0.5993
0.3535 0.6398 0.7068
-1.1713 -0.5574 3.1444
0.5697 -1.6718 -2.2889
0.8885 -0.6819 -0.9324
-0.3112 -0.0127 -0.7547
2.6342 -0.2947 2.4324
-1.3559 -1.7173 -1.2516
0.1322 0.0557 0.0452
-0.7897 -0.8356 -0.0586
-2.0030 -1.8382 0.7081
1.5401 2.1111 -1.7602
2.3355 -0.7336 0.4733
-0.1199 0.2920 4.4757
-0.1841 0.5916 0.5380
0.6398 -1.8226 -1.2387
-1.1583 0.1474 -2.3208
-0.2737 0.1037 1.0620
-1.8492 0.3241 1.4150
1.7019 1.6210 1.0571
-1.5893 0.5733 -1.8429
-0.7838 -0.5386 -0.6081
2.5078 1.0574 -1.8737
-0.3617 0.7931 -3.4907
-1.4110 -0.4245 -0.9657
1.2592 -0.7649 -4.0972
-0.1925 -0.3807 -0.2043
2.4473 -1.1774 0.1718
0.7786 -0.0301 0.9880
-0.2341 1.2645 0.4045
1.2525 1.6239 -0.4435
-1.8703 2.0775 1.1985
-1.6498 -3.0949 -0.6901
1.4302 2.5055 -0.9164
-0.2235 -1.9124 0.6759
0.5701 -1.3227 -1.2063
-0.3158 -0.4689 -0.3577
0.8362 0.3468 2.0996
0.5382 -0.3934 -0.0219
-2.8407 -1.4332 2.5148
0.3961 -0.7535 1.2007
1.1392 -1.2366 -0.3714
-0.5814 -2.3015 -4.2179
-0.1940 0.2432 0.3548
-0.5187 0.6796 -0.2998
0.0897 0.2634 -0.1351
-1.2256 1.2533 0.1732
-2.0636 2.8573 -0.2401
2.7224 -2.4373 1.0190
-0.1073 1.4663 -3.0601
1.3639 1.6165 4.0646
-0.7218 1.4446 -3.5302
0.3099 0.0724 -0.2917
-0.2067 1.6598 0.8599
-0.0902 0.1316 0.1290
-1.4980 0.5978 3.7882
-1.9415 1.3475 -1.3075
0.2922 -0.2071 -0.2767
-2.4463 -0.8191 -3.9725
1.3156 2.8439 2.3776
-0.2866 -0.3265 -2.5632
0.2482 0.9069 -1.0177
0.7413 1.1150 1.4420
2.5602 1.5374 -2.9795
0.1042 1.8649 0.6830
4.3184 -0.7251 -0.3034
2.1429 -3.8002 1.6178
-1.2801 0.7630 0.1874
-1.7635 -0.1997 -1.3384
0.0945 -0.0472 -0.2780
1.2900 -0.2240 -0.4018
0.4197 0.4872 0.5910
0.2362 0.2913 0.1256
-3.9771 -0.6857 -0.1370
1.4107 3.6714 1.8438
0.4183 -0.7799 -1.2939
0.5357 0.9594 -0.7636
-0.0497 -0.5653 0.1291
0.3474 0.0379 -0.0977
-3.9821 -2.0476 1.5432
0.5604 -2.2513 1.2372
1.1341 -0.0335 -1.2781
3.5853 -1.2289 -2.9204
2.4944 -1.3330 -2.9031
0.1544 -4.4087 -1.1648
-0.0007 -0.0016 0.0031
-1.2419 2.0911 3.4670
3.0398 -1.0583 -3.6575
-0.2057 1.2331 1.9863
0.1987 -0.1014 -0.5070
-1.4092 0.4487 0.1430
-1.2564 -0.3012 0.5829
1.0314 -0.8003 1.2180
-1.5201 0.9955 -1.7649
0.1325 1.2187 -1.8992
-2.9552 2.4424 -1.6759
-0.0424 0.0424 -0.7738
-0.0799 0.0372 -0.0810
-1.3091 1.5752 0.5710
3.0677 2.9247 -0.6811
-1.1055 -0.0704 0.0921
2.4544 -3.8004 1.8524
-1.8644 -0.1537 -1.1019
-0.1764 -0.4565 -0.6610
-0.7857 -0.0572 2.9965
2.1554 0.0830 -3.3989
-2.2729 1.7033 -1.3417
3.0632 -3.4213 0.7891
0.0297 0.0647 -0.0861
0.4137 0.2922 -0.5903
-0.1853 0.3050 1.0508
-0.5529 1.8935 1.6716
0.8624 2.1165 2.7562
-0.8720 -0.0827 0.8211
-3.3810 -0.1598 -0.8574
0.2996 0.2513 0.1798
0.3655 0.5380 -0.5993
0.3824 1.8033 0.7778
-0.6527 -0.1776 -0.5430
-0.4376 -0.9033 -0.6918
-0.0029 -0.0628 0.0038
2.2172 2.9697 -2.3976
0.4513 2.8229 -4.0360
-0.8447 -1.1231 3.4713
1.2615 -2.7689 -0.3550
3.3359 -3.4086 0.1370
1.2200 -0.1237 0.1265
0.4033 0.9220 -1.0761
-0.8124 0.2551 2.0081
-4.3650 0.1399 -1.0164
0.7826 3.8602 -2.9427
0.4690 -0.3007 0.9530
-1.4837 1.1169 1.2768
-0.3296 -2.4775 1.1078
0.7446 -0.4875 -0.1491
4.5418 -1.2363 0.0884
2.4769 -0.8932 -0.0736
-0.8965 4.5339 -1.1171
0.1374 -1.7991 1.2506
-0.4057 1.4424 4.3459
-0.9019 0.3738 0.2957
1.5818 0.9776 -0.8919
-1.6040 0.3076 2.0698
-0.4718 -0.2230 2.1451
0.5307 0.6444 1.4739
-2.8365 0.6544 2.0503
-0.6448 -1.5992 -0.9151
0.2271 0.4363 -1.1717
0.2854 0.3268 0.0503
1.4864 -4.3575 0.6522
-0.8164 -3.4123 3.0746
-2.3074 -0.8390 2.5910
-1.4200 0.0860 0.1991
-1.5438 0.9391 0.7899
-0.5338 -0.1525 -1.8156
0.8932 -0.3577 -2.8917
-1.4343 -0.7304 1.5857
0.2724 0.8376 3.1667
-3.9506 -0.0776 -2.5604
0.8728 -1.8463 -1.8388
1.4003 -2.6082 -3.7360
0.4414 0.1804 -0.1602
-0.1651 1.4590 1.0540
-0.4043 -0.7841 2.5859
1.8249 1.8851 -0.4809
-0.9254 3.4362 -2.8709
-1.5849 -3.4346 -0.9552
0.2804 -0.9690 -0.0339
-0.6569 0.2009 0.2377
-1.2143 3.6838 0.3177
4.5716 -0.0307 -0.1056
0.7288 -1.3349 -4.2933
-1.4146 2.8849 2.1759
1.5395 -1.4996 -4.0779
-0.2480 0.8642 0.2751
0.8536 2.0469 -1.4190
2.3084 2.0462 -1.1330
-0.1332 -0.7668 -0.7842
1.1410 1.2299 -0.3132
0.9485 -2.8453 -1.9866
-1.4926 -0.0342 -0.7243
-0.0014 -3.1779 -0.1642
0.4692 4.1333 -2.4653
0.0058 1.6143 2.7963
0.8520 1.1920 -2.3165
-0.1004 0.3461 -0.0533
-0.1836 -0.3230 0.5766
-0.1261 -1.1471 -1.1494
-0.0232 0.7687 0.0426
0.4475 0.3154 0.1257
0.2854 -0.0537 -0.0647
-0.6248 -0.4710 -0.4249
0.9038 -0.0454 -0.0183
1.3393 0.6708 0.5684
1.1539 0.3258 0.5921
0.5378 -0.3540 0.8703
-0.0474 0.9976 1.4902
-0.1982 -0.0327 0.0430
0.0136 -0.1198 -0.9098
-0.6178 0.4566 -0.0519
0.1086 -0.2946 -0.2544
-0.3994 -2.0112 2.8938
0.5010 -0.3430 3.6182
-1.3428 1.0267 -2.5760
-4.1283 2.7124 0.4169
0.9604 -2.5499 0.5561
0.0706 3.0243 -0.2041
0.1895 0.5780 0.3866
1.2136 0.5237 -1.6526
-0.4329 -0.3203 0.2241
-1.2066 -2.1394 -0.6289
3.0416 -0.3965 -0.9151
1.1617 0.1942 -1.2974
2.4298 1.5419 1.0865
0.0120 0.3274 -0.2275
1.4225 0.5678 0.7455
-0.3463 -3.6275 1.4634
2.1564 -1.0553 1.9269
-0.0614 0.3316 -0.4216
-0.7635 0.9215 -0.7458
1.5920 1.6182 1.3022
-1.6739 3.1846 1.3570
-1.2583 0.3864 0.1068
3.9407 0.5281 1.0646
-1.0962 1.1777 2.3898
-0.7132 1.9212 0.3285
-0.3438 -3.9794 0.9380
0.9496 -0.2149 -2.9773
0.6797 -1.2447 0.6565
1.8184 0.2191 -2.4510
-0.5300 -0.4110 -1.2280
0.3009 0.6814 0.6083
0.1706 -0.5214 -0.2721
-0.0856 -0.0075 0.2877
-1.3669 -1.2548 1.5510
0.4134 0.8291 -0.4496
1.5589 0.8719 2.4213
0.9701 0.3015 -1.7011
-0.5036 0.4753 0.1257
0.6895 -4.7760 0.6049
1.0509 2.6956 -0.7232
2.3349 -0.3155 0.2292
-3.0814 2.8094 -1.3001
0.0223 0.0107 -0.0743
-3.2837 -2.1258 0.6037
-0.9582 0.1433 -0.5995
-1.0840 -1.8191 -0.7624
0.0362 -0.7367 -1.5544
0.5124 -0.2437 1.0734
-0.0807 -0.4280 -0.3832
-1.0604 2.8994 0.2213
-0.7278 -0.1164 1.2193
-3.0851 -1.1095 -1.6053
1.4031 -1.4108 4.4463
3.3626 -1.2515 1.0589
0.9338 0.1770 0.3230
-2.0421 3.0068 3.4231
0.0631 1.9592 -2.6682
0.0191 1.2841 2.0051
-0.1361 -1.3014 -0.0703
1.2496 0.5431 3.3486
1.7983 -1.1860 -0.1769
0.3887 0.1291 3.8294
1.9067 -0.9107 -2.1239
0.9690 -2.6364 3.4133
-1.4134 0.9972 -3.7757
-3.4704 -1.0672 -2.3100
1.5416 1.6740 0.3633
2.6675 0.1915 0.3148
1.9611 -3.8464 -0.1072
0.0605 0.1183 0.0918
-0.0575 0.0700 0.1986
1.9988 2.5327 -0.4205
-1.7667 1.5371 -2.0185
-3.1184 -1.4517 1.0192
-0.5324 1.9966 0.5865
-0.7313 0.8998 -2.7993
0.0949 0.9364 1.1694
-0.0839 -1.0005 -2.4188
-0.7520 0.3461 0.8520
2.1461 0.9388 -0.5345
2.4677 -1.3222 -3.1860
3.8466 0.8931 0.0543
2.0171 2.2320 0.6431
-1.1470 1.9352 1.1656
1.0366 2.2746 -1.6263
0.8823 1.0496 0.0174
1.2334 -2.7066 -0.4799
0.6685 -0.4928 0.1776
3.3501 -1.1626 -1.5996
0.0880 -0.2217 -0.4648
-1.3056 0.0040 -4.2534
-0.8164 2.0839 -0.1628
-2.8004 -2.0676 -3.2535
-1.1155 1.0597 -1.9970
-2.4438 2.6621 1.6180
-0.0106 -0.2082 -0.0471
1.6719 -3.4124 -3.2329
0.0362 -0.6313 0.0379
-2.5383 1.8612 1.3006
-1.2223 0.7679 0.0805
-0.1089 0.0461 0.0400
1.2209 -0.5298 -1.9404
-0.0993 0.1222 0.0081
0.1119 0.5939 2.5668
1.3756 -4.3787 -1.9190
2.7629 -2.5014 -1.2672
0.8875 -0.4470 -0.3669
-1.2598 -0.4062 0.5050
0.4305 0.1005 -1.4187
0.7103 1.4512 -4.0322
-0.1170 0.3645 -0.1785
-0.2307 -4.2100 2.2504
-3.5886 0.6103 0.4503
-2.4428 0.0627 1.4730
-0.9180 -0.5331 0.4795
-0.5496 -2.2134 1.8904
0.4626 0.0845 0.1176
-0.7777 1.3489 0.8371
-0.4835 -1.9791 4.5001
-3.7058 -1.7683 -0.7111
0.5316 0.0713 -0.1207
1.4819 -0.2179 2.6553
2.0203 1.7034 1.8920
1.9683 -3.0963 -0.9527
0.4720 -2.2753 -0.9043
-3.9174 1.9174 -1.1352
0.2970 -0.4900 0.5841
0.0790 -0.8247 2.8402
-0.4733 0.9719 -1.3625
0.1540 0.4904 0.9889
3.1114 3.4709 -1.2608
0.5905 -0.0918 0.5822
-1.8287 -3.4213 -1.6272
-3.7362 -1.8211 -1.0177
0.4415 0.4451 3.7688
-0.9557 2.0097 -1.8177
-1.6981 0.7216 1.4204
1.2678 -0.3479 -0.2124
-0.0642 -0.1226 -4.9355
0.2594 -0.1572 0.3122
-1.2926 -3.2628 -0.7057
-0.4653 1.0472 -0.1512
-0.8209 -0.0556 3.3128
2.9556 -1.1523 -1.7563
2.6354 -3.1157 -1.5336
0.2119 0.4190 -1.2422
3.5976 -0.8417 1.9585
-0.0493 -0.8215 -0.0444
-0.0741 -1.2456 -1.2194
-1.8357 3.6281 0.7635
-3.9299 0.3488 -2.5211
-0.2964 0.5827 -0.4158
1.8034 0.8375 0.3457
0.7939 0.9429 -0.9923
-4.1015 0.4361 -0.5607
-1.6529 -0.1852 -0.8502
-0.5483 -0.3776 0.4991
-1.3043 -3.2834 0.5953
-2.8473 3.0441 0.0045
-1.2102 -2.3065 -1.0346
-1.6661 -1.1620 1.6459
-1.5722 -1.5501 -0.3680
-0.1126 -0.2107 -0.8071
0.0899 -0.4750 1.7604
-0.1035 -0.0044 0.2928
-2.0858 0.3506 0.2082
-0.4796 0.0061 -1.4713
-1.1876 0.5613 -0.7858
-0.6296 0.4328 -0.2394
-2.0361 2.2461 -0.8517
-1.3711 -0.2791 -0.9988
-4.3086 -0.3352 0.5955
-1.1281 -0.6896 -0.2802
1.5119 1.1759 1.4904
0.0578 -0.8732 -1.1143
0.1968 0.2673 -0.1086
0.1715 -0.1940 0.2286
-2.7650 -1.2610 -1.5691
-0.7828 -1.3791 0.0932
0.5850 -1.6464 4.3267
0.0027 0.4896 0.1495
-0.0224 0.0571 -0.0326
-0.7310 1.4835 2.8642
-0.9237 -3.1225 -0.1795
0.0301 0.1624 -0.1337
-2.4998 -1.3661 2.7670
3.2603 -2.0998 -0.7416
-0.5502 2.4029 -2.1783
0.2436 -1.7692 2.5884
0.0894 -0.0551 -0.0071
-1.5249 0.0293 -0.8195
-0.2037 0.3282 -0.0391
3.2706 -1.1218 2.1593
0.3139 -0.9745 -1.6214
0.6176 0.0344 0.2409
-1.1028 1.6921 -1.2145
-0.3680 0.5502 0.0584
0.4449 -4.2228 1.2140
-0.5394 -2.0790 0.4027
0.6635 0.3363 0.5428
-4.2114 0.5548 0.0400
-0.0724 0.0937 0.0127
0.5602 1.6504 -1.1301
0.6933 3.4365 2.2326
-0.4395 -1.1702 0.0201
4.3085 -2.2762 -0.5579
2.7808 0.8939 -2.7488
-0.3741 -0.0611 0.2233
-1.7585 -3.9381 2.4568
1.9219 1.8413 -0.1663
-0.0495 0.1815 3.9252
-3.2862 -0.0549 -0.4185
-0.8928 0.8482 -0.0360
-0.4800 -0.3971 0.4151
1.4769 -0.2166 0.4158
-1.0249 0.7121 -0.7564
2.7024 -1.1409 -0.6827
3.2394 -1.1335 -0.0694
-0.2418 0.7836 0.3029
-3.8487 1.0720 2.9598
-0.1598 0.3186 4.6846
-1.0934 2.3287 0.7131
1.2329 4.1333 1.5852
-4.1879 -0.4592 2.3923
-0.1585 1.5549 -0.9849
-1.8008 -0.5150 -2.9505
-1.2695 -2.7423 -0.8002
1.9285 3.0655 -1.0093
-1.4513 -1.3372 2.7855
2.2925 1.6127 0.6597
0.3491 -1.0168 0.6678
0.0844 0.1507 -0.0246
-2.9060 0.3421 1.4553
0.1292 -0.0601 0.4545
0.1427 -0.2633 -0.8074
0.0210 0.5709 0.3576
-0.6984 -0.8660 0.9263
-0.0090 0.0148 0.1008
1.3935 1.5356 0.3059
-2.8687 -0.8192 1.1349
0.0145 0.0047 0.0283
-4.2361 1.2843 -1.1273
-0.3881 -1.5193 1.3463
0.3465 0.0304 -0.0545
3.9234 -0.2438 1.7093
0.0956 -0.0480 -0.0383
-2.9532 -2.7807 1.7938
0.3894 2.0935 -2.3002
3.9613 -2.8849 0.4650
-1.0324 -0.4153 0.3217
2.2964 0.7945 -0.2606
-0.1196 -0.1316 -1.1916
0.0140 -0.0294 0.0068
-1.3626 -1.0128 -0.6711
-0.1754 2.0220 3.5906
0.3370 0.1102 -1.7438
0.1086 0.7580 0.1174
-1.3302 -2.4167 -0.7636
-0.5103 3.6709 -2.2421
-1.3389 0.6406 0.2526
0.2528 -0.6932 0.2170
-0.9794 1.6358 0.2204
0.0767 -0.4887 -0.2746
-2.0042 2.3080 2.2103
0.0013 0.0044 -0.0076
1.2541 0.2576 0.2845
-2.6495 -0.9733 -3.1708
0.4787 2.7608 2.3383
3.9778 0.3167 2.9646
-3.0960 0.7340 3.3035
-0.2814 -0.0559 0.0202
-0.5141 0.5903 -0.7833
-1.4855 0.7612 -1.0659
1.2312 1.1607 -0.3825
0.5236 -0.3687 0.6618
-0.0267 0.1120 1.3993
-1.2008 3.5672 1.1686
-1.9012 2.0598 -4.1190
3.3096 1.2972 -0.0911
0.7028 -3.4467 0.1878
2.8315 1.6203 -1.0529
-0.0139 0.2310 0.1619
2.9390 -2.9844 2.6346
-1.0515 -3.7985 1.7931
-0.9949 -1.0369 2.3117
-1.9483 2.8088 -2.9228
-0.3379 2.7438 -2.6863
-0.4478 -0.2727 0.1597
-0.1237 0.2621 -0.9094
4.0183 2.3322 -0.1391
0.4003 0.2042 -0.6085
-0.6015 2.3619 2.3100
-0.1356 -0.1203 0.0738
-2.5988 1.5412 0.9973
-0.6764 0.0337 -1.0023
0.8356 -0.9245 0.0785
0.0096 0.0005 0.0042
-0.8853 -1.6038 -3.9380
1.0947 -2.3313 2.4214
-2.3749 -3.0114 -0.4795
-0.7287 -0.0223 0.3214
0.3371 0.7170 -2.7947
-0.1676 -0.1024 -0.0537
0.4640 -0.0273 0.0460
0.4653 1.9460 -2.3688
-0.0358 2.2734 4.1895
-1.1925 2.2643 2.9349
-3.2210 2.6516 1.3309
3.0868 -1.3438 0.2258
-1.5713 4.4664 -1.6051
-2.2960 0.6025 1.5393
1.1575 0.7915 1.5444
-1.1108 -1.9556 0.1315
0.2912 0.1715 -0.2541
4.6005 0.3700 -0.1891
-1.1190 -0.4857 0.3064
0.4064 -0.1646 0.0856
0.0300 -0.0323 -0.1269
-2.3617 -2.3010 0.8775
-0.5421 -0.7139 -1.1256
-1.4341 0.5362 -2.5926
-1.5987 -0.3660 -2.2019
-4.4549 -1.1553 -0.2781
-1.1430 3.4035 -0.1222
-2.6897 0.4545 1.4840
3.1508 -0.3303 -1.2638
-0.1198 -0.9437 -4.1764
-3.3996 -1.6435 -1.5156
0.9591 0.1035 -2.8229
-0.5262 0.7863 -3.4397
0.3649 0.3225 0.1421
-0.1999 -2.2609 0.2313
1.3871 1.2969 -1.5059
0.3108 0.3084 0.4406
2.1778 -2.0068 -1.3576
-0.2362 0.5673 -0.2509
-2.1311 -0.2734 2.8016
-0.4364 0.4695 -1.5396
-0.1203 2.3195 -2.3799
-0.3444 0.2012 -0.6643
-1.6645 -1.2860 -0.8675
0.1488 -0.7224 -0.2043
-1.1177 3.1031 -2.2766
2.4575 -0.0571 2.9703
-2.6433 2.2335 0.5969
-0.3026 -0.6528 -0.1416
0.1125 -0.8557 -0.2096
-1.3400 1.0070 -1.8437
-0.2281 2.0337 0.3723
-0.1790 1.9040 0.1459
-0.0232 -0.0829 0.7611
0.7765 0.6220 -1.8585
0.5273 -0.0153 0.4035
0.0067 -0.5214 -0.4601
0.0304 -0.2929 0.4381
-1.7056 -0.0108 0.4956
-2.2288 -1.7926 -1.4562
-1.6070 0.0915 -1.1130
-0.7363 4.5495 0.5696
0.0210 -0.0265 0.0890
-1.6443 -3.1428 0.2820
-0.2873 -0.6316 -2.9349
-1.9720 -0.7642 -0.5073
0.1708 1.0070 3.9248
1.4408 1.1916 2.4283
2.2314 -0.7099 -1.2619
-1.9830 -1.8947 2.2502
-2.8081 -0.3813 -2.1260
-0.0829 -1.0395 4.3604
0.5805 -0.1784 -0.1296
-2.1094 2.8182 -0.0730
-0.2538 0.2262 1.5076
0.0026 0.0724 -0.1344
-0.4116 0.0922 0.1696
4.9442 -0.0023 -0.2104
-3.3970 2.7527 0.8698
-0.4178 -1.0928 4.3472
-0.3687 1.8397 3.0367
0.0393 -0.3656 -0.1196
1.0964 0.1120 0.8027
2.9391 2.4622 -1.7842
-2.8896 -0.2506 -0.6835
-0.2940 -0.4490 0.2416
1.7290 1.1193 -0.7873
0.4565 1.7088 -0.2711
-2.2526 2.5034 -0.2752
-0.6289 3.1642 -2.7206
2.0475 1.4669 3.3675
0.0829 0.5301 -0.4830
-0.3071 0.8768 1.4483
-0.2428 -0.0290 -0.4748
2.2816 1.5685 -4.0191
0.3402 0.3291 0.1522
0.0285 -2.1768 1.5452
-1.4752 -1.6380 0.6593
3.0609 1.5159 0.6240
0.0131 0.1906 0.0875
0.3213 4.0042 -0.3593
0.0792 0.5152 -0.0633
-2.4062 -0.8025 -3.2440
2.4873 3.2943 2.0414
2.0626 1.1107 2.8499
-0.1061 0.2773 0.0013
0.6950 2.1045 -0.1411
-0.8440 -1.9019 -0.2119
-0.7373 -0.4249 1.7691
2.5417 0.0825 -0.0073
3.4409 2.8369 0.7436
0.6970 -1.1153 2.2832
0.8769 0.6185 1.8706
0.1955 0.1586 0.2687
-1.6390 0.1174 2.0264
-0.1078 -0.0152 0.0245
-2.8609 0.4802 0.2622
3.7213 0.4813 1.0996
-3.1995 0.1669 -1.4066
-0.9019 2.3772 0.3999
-0.6969 0.1879 -0.5509
-1.0658 0.1849 -0.7003
-0.8170 0.8578 -0.6035
-0.0189 -0.0455 -0.0095
-1.3183 -1.3103 -1.4494
0.3244 1.1706 -3.3621
2.3886 0.4872 -0.7815
-0.5184 0.0241 -0.4043
-1.3500 -0.0681 2.6847
-0.9787 -0.7152 -1.2441
0.1171 -0.1083 0.0045
0.0675 -1.1887 -0.6739
3.3774 0.8950 0.4401
-0.2464 -0.2124 -0.0597
-1.9670 3.6677 2.5775
1.8950 -1.6645 1.2505
-1.2697 -1.5123 -1.0749
-1.5746 -0.0003 0.1953
2.0381 -3.4285 1.7711
-1.5507 2.3573 0.5972
2.6196 -1.8645 3.3820
-0.2178 0.0640 0.6493
-0.4124 0.1381 -0.2175
-0.0283 -0.0584 0.0305
0.0912 0.2709 -0.2809
-0.0801 0.0242 -0.0787
4.0900 0.0924 -1.3716
1.6263 -2.5955 -3.8026
-0.4501 0.6491 -0.2983
1.5092 2.4109 2.3296
-0.4018 4.6079 -1.1798
-1.7295 -0.9503 -1.4914
0.1546 -0.9917 1.3878
3.5918 -1.9255 1.1575
-0.3764 -0.6502 -0.1983
-0.4436 -0.0419 0.0717
0.7231 0.3820 -0.7243
-0.5791 0.6074 0.0084
-2.2572 0.4335 0.5291
0.1655 0.7664 -2.2967
1.4304 -0.4476 0.2926
1.7008 -0.3495 0.1913
-0.4568 0.0649 0.0286
0.5562 0.6756 -1.0261
1.4685 -1.2606 -0.4105
2.4690 2.4404 -2.5112
0.1903 0.3115 0.7854
1.4990 -1.9035 -2.2738
-1.4278 -0.7510 0.1049
-0.1221 0.1169 -0.3191
0.7516 -2.6362 -2.2494
-0.0049 0.1393 0.2379
0.0991 -0.3101 -1.1334
2.7737 2.1845 3.4075
2.7628 2.8394 -1.6830
-0.8780 3.0392 0.8269
-2.0277 1.0639 2.5259
-1.6828 2.2628 -0.6084
0.2484 -1.1553 -2.7304
-0.9571 -3.3937 -1.1669
0.8273 -1.5492 2.2802
-0.0895 0.7965 -1.2296
0.9058 0.3419 -0.1061
-0.5618 0.3477 -2.7299
0.1093 1.4401 -0.6870
-1.4592 -1.4890 -1.9855
-0.2288 -0.0581 -0.0859
-0.5687 1.0996 0.1346
0.1166 0.0022 -0.2071
2.3776 2.5570 0.7159
1.1643 0.4038 -0.4013
-0.5948 -3.8684 -0.0331
-0.7591 0.1199 0.3126
0.0458 0.0306 0.0575
-0.7414 0.2436 1.5561
-0.9076 4.5000 -1.9235
-1.4652 -0.3964 -0.2162
-0.3529 1.5506 0.1963
1.1473 -1.2863 2.8475
-0.3797 0.8188 1.3387
1.4251 1.1423 4.0135
-0.9487 0.2855 -0.4954
-0.0209 0.1627 -0.0215
0.6789 -1.2108 1.5937
-3.7406 -0.9592 -2.2577
-3.9526 -0.8153 -0.9835
0.1406 0.0050 -0.8390
-1.3901 1.5588 -2.9579
0.4295 -0.0754 -0.2904
-4.0393 0.5998 0.4588
0.2084 -0.0642 -0.0054
0.5683 -0.1209 -1.5010
2.1789 0.8591 0.4663
2.2032 0.7069 1.2120
1.9455 0.0435 1.8290
-1.5123 -1.2812 1.7712
0.1459 -0.0262 -0.0406
0.3241 0.8372 -0.0555
1.7614 0.8134 2.5046
-0.4868 -0.7303 -1.1763
2.3760 1.3974 1.9094
-0.9601 0.8529 -0.0082
1.7190 -3.9561 -2.3147
0.5062 1.3520 1.0004
-3.0813 2.3875 -2.1005
0.9691 -0.1051 2.4031
0.9944 0.4462 1.5672
-1.7694 -0.2024 -1.3947
-0.1604 -1.7536 -1.7887
-1.6375 0.3550 1.0734
-0.7971 0.0118 0.3762
0.8276 -0.2239 -1.7740
0.0177 0.6601 -0.5896
0.9989 0.5374 0.7947
-4.2871 -0.0916 1.6753
0.4830 3.6949 1.2390
-0.1366 1.0827 0.3944
0.6201 -0.0083 -0.0513
1.0384 -0.8636 3.5325
-1.1275 -2.6321 -0.8646
-0.8257 0.5665 0.4018
0.0661 -0.1710 -0.0274
-1.1668 1.3114 -0.4133
2.0951 -2.6028 -0.6620
-1.8120 0.6804 2.4405
-0.6001 -2.5796 -3.3854
0.1716 -0.0775 -0.2885
-0.1662 -3.3764 -1.8977
0.0535 0.2002 -0.0125
1.0449 -2.5191 -1.3765
1.0392 1.6632 -0.2197
0.0211 -0.0013 -0.0039
0.0800 -0.0516 0.0123
0.2567 0.8718 0.8516
1.3917 0.1080 3.7293
-1.3443 -1.7883 0.9134
0.7791 0.8647 1.6814
-4.4574 0.4954 0.5946
2.5795 -0.7864 -0.2072
1.3357 2.2912 2.4541
-1.3562 -2.1331 0.6367
-1.5077 0.4600 -3.8558
-4.2511 2.3891 0.8464
-2.6301 2.0347 1.8218
-0.7586 -2.0806 -0.9127
-0.1792 3.2317 0.7678
0.0260 0.0925 0.4210
4.2996 0.7489 0.2633
2.2599 0.6497 -0.0980
0.3939 1.6958 -0.2378
-0.0438 -0.6968 1.2817
-0.0051 0.0191 0.0667
0.5531 1.1696 3.2769
-1.3235 0.2667 -0.0942
0.9463 -0.4307 -1.2046
-1.3165 0.2876 0.1050
-0.1714 0.8095 4.4799
2.2469 2.4707 2.4314
-0.0405 0.0438 -0.1031
-1.3200 -2.0456 3.6452
0.7568 -1.6991 -0.6410
0.9131 -0.9218 -4.6550
-4.7869 -0.7841 0.4129
0.3951 -0.2355 0.3089
3.0290 -1.7529 -0.6593
-1.9765 3.5565 2.2900
0.0363 0.0540 -0.1847
-0.4020 -2.5191 3.0263
0.4756 0.4258 0.3858
1.8956 -1.6130 -0.2173
3.0195 1.6405 0.9631
-0.4283 -0.3630 -0.1699
0.2980 -0.4410 -0.5024
-0.0818 0.2072 -0.1109
-3.3618 1.1603 -2.5443
2.4155 -2.8403 -1.8206
1.2250 0.6994 0.8507
-0.2554 -0.0848 0.8982
-0.6772 -0.3577 -0.1706
-0.1145 -0.0623 0.1236
1.0358 0.8382 -0.2378
-0.0883 -0.0153 0.0157
-0.0304 -0.1959 0.1543
-0.7780 -1.1094 0.2591
-2.2871 1.6923 -0.9715
-0.6403 -3.0301 2.8353
-3.2688 1.7638 -1.7576
1.1640 -0.4719 -3.5997
0.0217 -0.0869 -0.0573
-0.9201 -0.7987 -0.5532
1.9271 0.5209 -2.4260
1.4756 4.1491 2.1504
0.0007 3.2751 -0.0285
-1.5960 -0.4878 -0.4002
2.5272 2.2666 0.4688
-0.0795 -0.1439 -0.0089
-1.6594 1.3637 -1.8450
0.1416 0.4137 0.0789
-2.9093 1.8671 1.8248
-0.2460 0.3344 0.5567
-1.1783 0.9066 -3.6838
-0.9098 -0.9064 0.9809
-0.5162 -2.2766 1.3522
1.5501 2.8989 -0.1491
0.2462 0.9068 0.0655
0.1037 0.2664 0.2641
4.1298 -0.3128 0.6667
-0.5714 0.4615 -0.7801
-0.0853 2.0834 -1.3965
-0.0736 -0.4176 -0.1961
-0.9006 -1.2899 1.4828
-0.5794 -2.5317 -1.3110
-0.8660 2.7342 3.9315
-0.2011 0.3261 0.1611
2.0247 -1.3599 -3.1806
0.2069 -2.8491 0.5952
1.5231 0.2859 0.8293
0.5996 0.2285 -0.3265
-3.7972 -0.7891 0.2688
-2.9742 -3.3049 1.8950
-0.9347 -1.6674 -0.3984
-0.1142 1.7771 3.0254
2.1730 0.1897 1.4768
4.3792 -1.2532 -0.6135
-0.4006 0.2278 -1.3615
0.4180 -0.6635 -0.7725
-1.4007 1.3503 1.8355
0.4520 -0.7710 -2.5418
1.0667 -0.7473 -0.6863
-0.0790 -0.1670 -1.0728
1.2738 1.7090 0.2247
1.6884 4.3041 -0.1229
0.8527 -0.3433 1.6324
0.0019 -0.0752 0.0075
0.0526 0.0180 0.0931
-1.3018 1.3682 1.5983
0.0000 -0.0000 0.0000
0.1139 -1.7712 -4.0734
-3.0987 2.3508 1.6093
-0.7858 -0.1973 0.5822
-0.8211 0.4683 2.0873
0.2114 0.0502 -0.4657
0.9673 -1.4315 1.4573
-0.2363 -0.6213 -0.1119
-1.2105 -0.4445 0.4927
-0.7563 -0.9225 0.9661
2.8817 -0.6075 0.0800
0.3820 0.2528 -0.2466
0.0806 -0.2319 -0.2413
0.6846 0.0672 -0.8503
0.3810 -0.7040 0.7263
-2.5702 -3.3560 0.2838
-1.8265 -2.8915 1.8480
1.2917 1.4061 0.7135
-0.0214 0.0041 0.0264
-2.2203 -0.7755 -0.1181
1.6727 -4.0388 0.4970
-0.0816 0.0761 0.0059
4.9694 0.2399 -0.4869
-0.4767 3.8758 2.1206
-1.8557 -4.3536 -0.2613
-0.8295 0.9934 0.1076
-1.0514 1.5233 -0.0861
0.0334 -0.0403 -0.0115
1.2176 -0.2952 0.2349
2.2966 2.7627 -1.9805
1.7626 -3.6326 -2.7145
-2.7469 2.6792 2.3480
-0.8400 0.1885 -0.0323
2.3261 4.2254 -0.7817
1.8968 0.8314 -0.0792
-0.0250 0.0120 0.0118
-0.0936 -0.1525 0.3949
1.3756 1.3907 2.8088
1.6743 -0.9203 0.8524
-1.6591 4.0772 1.6490
1.2936 -1.8656 -2.2072
-0.0529 -3.6990 0.8635
0.1038 0.5680 -0.4197
-2.5131 3.6257 -2.3161
0.1145 0.0840 -0.3336
-2.9942 0.0124 2.5586
-0.2225 -0.1726 4.3090
-1.2914 2.8313 -2.9248
1.2142 1.6378 -0.1553
3.1881 2.3993 2.5998
-3.5055 -0.2865 0.5757
2.7040 2.7711 -2.3610
-0.1255 -4.1410 -1.2808
-1.0170 0.1577 -0.3732
0.3023 2.8565 -3.5868
-1.1859 3.0851 1.5980
0.0195 0.1892 0.0609
1.7184 -1.1597 -0.3675
-1.3553 -0.9587 2.4683
-2.2612 0.5581 -2.7174
-0.4748 -0.2808 -0.7940
3.9928 -0.4963 -2.5085
-0.5346 2.1241 -0.8609
0.0642 -0.1136 0.0897
-0.0079 -0.0704 -0.0372
1.7632 0.7303 -0.2223
0.2436 2.8137 0.0281
1.9775 -0.5368 -1.3298
-3.0446 -1.6225 -2.2659
0.5848 -0.4420 0.4442
-1.7519 0.2334 -2.6304
0.0392 3.9441 -0.4517
-1.1819 4.0545 -1.6805
-0.1022 0.4619 0.3994
-0.1494 -0.2077 0.0929
-1.7141 0.6746 0.2594
-0.5974 -0.8115 2.0450
-0.5192 -0.8393 2.9217
0.3438 0.0540 0.2289
0.0142 -0.0032 0.1668
-1.3605 -0.1529 -3.4505
0.2207 -0.0383 -0.4760
-1.4345 -1.1381 -3.3526
-2.1453 -0.3270 -0.5457
0.6504 -0.7959 -0.4760
-0.3891 0.1623 0.5488
-2.4901 -0.3297 -0.5752
0.8006 0.1405 -0.9527
1.4056 -2.5834 -0.3041
0.5002 -1.0324 -1.1582
0.5032 0.1649 -0.8779
2.9010 -2.0577 -0.3164
-1.1641 2.6475 -3.8519
-1.8940 2.6308 3.2232
0.6302 1.8338 -4.3962
-1.4273 -2.6793 1.8421
2.9285 3.8592 0.8282
0.4585 -0.3271 0.1712
1.1236 2.9749 0.7436
-0.0584 -0.0536 -0.4188
0.2083 0.7801 0.5658
-0.1515 -0.3622 0.0951
0.0168 0.0038 -0.0051
0.0036 2.1399 1.1792
-1.3519 1.8278 0.9776
3.6646 -0.7162 -0.2005
-0.3198 -0.2267 -0.2165
0.0207 0.0173 -0.0649
1.9821 -0.5822 3.5708
-0.2997 -0.8732 0.6340
1.1957 -0.4313 2.6617
0.6057 1.3213 -1.8755
-3.0177 2.0499 -3.3336
3.2608 1.3897 2.1670
1.4105 -0.3799 4.1059
0.8903 1.5915 1.3414
0.6971 1.2277 0.9249
-0.2947 -1.4754 -1.8334
4.2398 0.2590 2.0832
-1.0766 -0.3306 1.2087
1.6558 -1.7603 3.1789
0.9774 0.5624 0.8941
-0.6110 1.3206 4.6807
0.8767 -1.2130 2.9411
1.1896 0.5722 1.0694
0.5902 0.9484 -2.5420
1.3884 1.6157 4.0944
1.6646 -1.4955 3.1628
-0.6063 -0.8147 -0.0738
2.9932 1.3405 0.0147
-0.0302 -1.5648 0.0772
-2.7759 0.2972 0.0117
2.3489 1.3954 -0.6366
-0.1078 -0.4868 -0.2697
-2.0763 0.9669 -2.7547
1.3558 2.2047 -0.6563
-0.9927 -1.3213 4.2572
-0.8566 1.3760 -0.1945
0.5428 -0.1932 0.7021
0.3387 -0.0904 -0.5425
-1.3401 -1.1017 -1.7581
-0.8662 0.3272 3.3824
0.0347 -0.1857 -0.0979
-1.2848 0.6219 0.7672
0.1641 0.4071 -3.3322
-0.2215 -1.5396 1.9167
0.2414 0.6370 0.4960
0.6717 -4.4540 -1.1826
-1.7202 -4.2885 0.9955
-3.0426 -1.6489 -0.3182
0.8057 -0.8431 -1.0357
0.8357 1.7000 -1.1644
-0.1016 -0.0008 0.0753
2.1263 -0.7675 0.1617
-3.2096 -1.9360 -2.7363
-1.4682 2.9624 -0.7319
-1.5364 1.8802 1.0378
1.4750 2.1274 -0.4016
0.7450 0.4715 0.9813
-2.1971 1.2640 0.6794
2.0925 -2.3647 3.0551
1.0943 -0.1219 1.1787
0.0608 -0.6512 -0.0475
-0.2035 -0.9931 -0.7735
-0.6003 1.4663 0.1444
1.3103 -0.0348 -0.7643
-0.1115 0.7338 2.1542
1.2030 -3.1246 3.1282
1.5925 -0.5019 1.1335
-1.4466 0.3895 -0.9596
-0.2530 -3.2407 1.8847
-2.8091 3.1986 0.7422
0.1347 1.5624 -0.1091
1.0417 2.2971 -0.3520
-4.2330 -1.0825 1.0547
-2.7888 -2.1967 -0.9061
1.8082 -1.1960 -1.7389
-3.3906 -2.4472 -0.9420
-1.7006 1.9567 1.8328
-1.6240 -0.3746 1.6487
0.7090 0.2977 1.4220
-0.6153 -3.9218 -1.5525
-0.1541 -0.0215 -0.1097
0.8473 0.8804 0.4294
1.0649 -0.1203 2.3982
0.2129 -0.1218 0.0244
1.6826 -1.3381 0.5467
-0.9841 0.4005 0.0059
-4.0800 -1.9416 -1.9244
2.3487 1.5959 -0.6530
0.1691 -0.0401 -0.0160
-2.0256 -0.0461 -1.9367
-2.1167 -0.7907 3.2536
0.1700 0.0938 -0.4131
0.8111 0.7027 -0.5330
-0.2079 0.2707 0.8675
0.6751 2.0500 -2.4915
0.9734 -0.2942 2.8144
0.0788 0.1145 1.1086
-1.0742 2.5395 -0.5895
0.5176 0.9575 -0.9386
1.1022 -1.3075 -0.6126
0.6050 0.2707 -0.8124
0.9947 -0.1065 -0.7131
1.1748 0.2483 2.7400
-0.3756 -0.7765 0.0216
0.0072 0.2523 -0.3671
-0.5936 2.0080 -0.6910
-0.7842 0.9032 -0.1499
-1.4279 -0.9105 1.8509
-1.7326 2.4177 -0.4006
-1.1781 -1.7986 -2.7321
-0.5196 -0.9578 1.4921
-0.3039 1.0729 -0.0857
0.5825 -0.9790 1.4605
-1.1394 -0.7853 1.3758
-2.0324 0.0069 2.6595
-1.9467 -0.4290 -4.4147
2.3944 2.8331 3.1317
1.4505 -2.4551 1.8170
-1.3236 0.1539 0.7906
0.4233 -1.1813 -0.6625
-0.5383 2.4473 0.8584
1.3637 -1.9935 3.7081
0.9347 -0.1137 0.6643
-0.3148 -0.6924 -1.5368
-2.8240 -0.6746 3.7247
-0.3148 3.0687 2.9690
-2.4460 -1.3557 0.3901
-0.0487 0.2682 -0.0990
-2.4550 -4.1576 0.1026
-2.2565 -1.8996 0.6903
1.2363 -3.9994 2.5380
-1.0601 -0.5881 2.9742
2.3634 -0.9803 -2.7759
3.0830 -1.4164 -1.3561
-2.9032 -0.3163 -0.4676
0.9415 -3.1664 -0.0896
0.4188 2.8903 -0.5424
-0.9065 0.0090 0.2382
0.5099 0.7417 -0.7053
1.2768 -0.4718 -2.4041
0.0654 0.0608 -1.4302
-0.9503 -0.2569 0.7751
-1.9548 2.4615 -2.4303
0.5390 -0.2685 1.2395
3.9622 1.4866 2.5925
0.4559 -0.2063 -0.1027
0.1248 -4.4577 1.3091
-1.9017 1.7892 3.0902
4.0918 -0.7472 -0.1564
0.0600 0.1718 0.2070
-0.3951 -1.2377 -0.3306
-3.1505 3.2613 2.1064
-1.0656 -2.4993 -1.8292
-0.0002 -0.9385 -1.1152
-0.8284 2.4270 -1.6214
0.6950 -0.7262 -0.8874
0.0444 -0.0849 0.1911
0.0563 3.0547 3.7942
0.5246 -2.9011 0.2372
0.5282 -0.2575 0.0437
-0.1838 3.4088 2.9833
-1.8324 1.9940 0.5495
-0.2428 0.0684 -0.0598
0.5726 3.1400 1.4769
-1.3034 0.6416 -0.8336
2.4386 -2.6991 -0.9592
0.0244 -0.5812 -0.0999
0.1741 -1.9484 0.1918
-1.4617 2.4839 0.7750
-0.4844 -0.0330 -1.3139
1.0043 0.8651 4.7765
1.2998 -1.9358 1.9422
-0.6291 1.1520 1.9295
1.7326 2.6724 -2.8119
0.0109 -0.0084 -0.0286
-0.1533 0.0525 -0.1685
-0.2033 0.6294 -1.0396
-0.2221 1.1958 0.3893
0.0087 -0.0123 0.0410
-2.7977 1.3456 2.4408
-0.1803 -0.1822 -0.8080
-0.9730 -0.2330 2.9695
-3.7109 -0.3698 2.9873
1.7796 -1.2171 0.5642
1.9196 0.8855 -0.8779
0.6723 0.1212 -0.1711
1.7707 2.5178 -1.1815
1.2503 0.3957 0.2147
2.2838 -0.3917 2.4051
0.2677 -0.3218 -0.5370
0.4205 0.1587 -0.8140
2.5024 0.8661 -2.8164
1.1716 1.9658 0.4379
-2.7369 -1.1197 -0.6101
-0.1833 -1.6229 -3.7045
0.0517 0.3971 -0.0787
-1.1006 1.1871 -3.8789
0.9756 0.3948 -2.5593
2.8457 0.4225 -1.7155
0.1358 0.5311 -0.2306
-2.5538 2.0343 3.2895
0.6101 -1.3097 -0.0506
-1.5211 -1.8123 -1.5484
0.6454 -0.6223 0.5140
0.1250 -0.1383 0.3392
-0.6730 0.1597 0.1641
-1.1270 2.1819 2.1755
0.1665 0.0330 0.1638
-2.4502 -2.3747 -2.8250
-0.3327 -1.9942 -0.9649
2.0570 -1.3440 2.8091
2.6106 -0.0080 0.0194
-1.7126 -3.2276 2.7289
0.7734 1.6660 -0.2984
-0.1589 1.1848 0.7280
-0.7874 -2.2701 -3.0618
-0.0912 0.0855 0.5646
-0.5426 0.3793 0.7316
0.1312 0.0268 -0.1101
-0.1855 -0.0708 0.0775
-1.6022 -1.8504 2.7504
0.2267 2.2232 2.4312
-1.9106 -2.8279 1.8933
0.2055 0.0083 -0.1242
-1.4876 -0.7853 -3.3044
-0.3409 -2.8172 0.3066
2.5566 0.5960 1.8078
-0.3623 -1.1024 1.5267
1.1476 -0.6010 0.2691
0.0658 0.2099 -0.0262
0.0796 -0.0680 -0.2476
-0.2665 -1.5641 -1.1940
0.3887 0.6000 4.8944
0.3027 0.5833 0.0692
-0.7373 -0.5938 0.1802
2.0998 -0.3130 0.5333
-0.7798 -0.1275 -0.1198
0.8128 -0.5533 0.0253
-1.2622 -1.2519 -0.6832
1.2785 -1.3417 0.4879
1.0602 3.7287 -0.8966
1.4574 -3.5001 -1.4169
2.4961 1.3668 -3.9911
0.2206 0.2204 0.5044
0.4741 4.5988 -0.3974
0.9221 -1.0168 0.8428
-0.1191 0.1433 1.9436
-2.6536 -1.8268 0.7380
0.0403 -0.5891 -0.3966
-0.7628 0.8118 0.3344
2.9811 2.3012 -0.2015
-0.5939 -0.2585 1.8949
1.5129 -0.4111 -1.5938
-0.4936 -2.4576 0.7684
-1.0904 1.6017 0.1177
-0.3193 -0.1053 -0.0097
-1.6941 0.8536 3.5949
-0.5023 -1.7713 -1.1647
1.7165 -2.7948 0.5677
2.4348 -1.4627 -2.6347
-0.1615 1.0977 0.4386
-1.6198 -0.5251 -0.3592
-4.0411 2.0734 2.0409
-0.0114 -0.6371 1.0766
-0.6949 0.2655 3.6952
1.0241 -0.6067 1.1265
1.0473 3.5974 3.0583
-4.6559 0.3609 0.6614
1.9953 -2.2566 -3.1689
0.7200 1.5449 3.1628
-1.3444 -0.6491 -0.1079
-1.7043 0.3245 -0.0949
1.9593 -2.1663 -0.5831
1.0195 -0.8982 0.6529
0.1904 0.6410 0.5272
3.3213 1.9947 1.9763
-0.9266 -0.5502 1.8447
-0.7067 1.5233 0.7350
-2.0860 0.4338 -3.6019
2.2898 3.4494 -0.1120
0.4633 -2.1420 3.9291
3.1801 2.6573 -1.6551
-1.1630 3.9843 1.1095
2.1692 2.6827 -2.1485
0.0594 -0.2513 -1.0992
-0.4765 -0.6198 -0.2834
1.5670 1.9040 1.7371
0.3683 4.1274 -0.9730
-2.2734 -1.5441 2.0632
1.4563 -0.6725 1.7516
0.2247 0.7022 0.3334
0.9833 2.6540 -3.0130
2.7019 1.8347 0.1808
0.3735 1.5393 -0.6595
2.6071 -0.1462 -0.4180
-3.5159 2.7845 -0.6178
-1.1563 -2.2207 -1.4354
0.8040 1.5328 -3.1025
-1.4672 0.0938 -4.5669
-2.7633 1.9299 0.6656
-2.8514 0.6105 0.2913
0.2305 -0.2573 0.2962
-0.1822 -1.1084 -0.5717
2.6988 0.8479 -0.1031
0.1396 -0.0065 -0.1108
3.0523 0.8009 0.6291
-1.8165 0.4313 -0.7590
0.1477 -3.0257 1.8187
1.2347 -3.4112 1.2248
2.9634 3.7076 1.2476
-1.5668 -2.5866 0.0664
0.2528 -0.1304 -0.1113
0.8438 0.1863 0.7219
-1.1799 0.8172 1.3172
-0.4764 -1.6364 0.0763
-0.3466 -4.1584 -0.7094
-3.2140 -0.3910 0.5831
-2.3843 1.1939 -3.3968
1.1137 -0.5844 -1.6939
-2.3738 0.8043 -0.2190
-2.1251 -2.5092 3.4511
-0.3735 0.3933 0.1101
-0.1450 -0.9533 -0.5041
-2.5816 1.5594 3.9093
0.0168 -3.2055 -0.4249
-0.2384 -0.0104 -0.0606
3.1401 0.9175 1.6365
-3.8425 -1.8392 -1.4138
0.4988 -0.3367 -0.0871
-0.6246 0.3513 -0.4912
-0.9414 1.5289 1.2334
1.8822 0.5271 -2.7484
0.8814 -0.6828 -0.8072
1.2776 -1.0050 3.1616
-3.0905 -0.1030 -2.3374
-3.8133 -1.7768 2.6044
-0.6938 -2.7446 0.4060
-1.3240 -0.1678 -0.3730
-0.5463 2.5981 -3.0707
1.0171 2.9394 1.5333
0.3243 -0.2232 0.5243
-1.3816 2.4295 -0.4868
-3.0792 -0.0318 -0.5719
-0.8643 -3.0899 3.7461
-0.5275 0.0490 1.4901
-0.9603 -0.6108 -2.8066
-1.2788 -1.5388 4.2633
-1.1530 -0.3750 -0.4387
0.4928 1.5830 -2.1293
1.9288 -1.7426 -1.2507
-1.4693 -1.9153 -1.8019
1.4061 -0.2391 -3.4897
3.5597 0.7014 1.2118
-0.8000 0.4892 -0.4961
-2.1645 -2.0215 -2.8780
-0.1092 -0.9104 0.2222
0.1167 0.4079 0.3283
2.7894 -2.5359 1.6965
-2.6136 -2.2262 2.4864
0.6140 2.6848 0.9582
-2.9873 0.7169 -2.2453
-0.0767 -0.4316 -1.3457
0.2275 0.6217 0.8554
-0.5840 -0.0448 -2.2404
0.0623 0.0305 -0.2813
-1.5650 -0.7559 -0.7017
3.8093 -1.6814 1.3804
-0.2110 -0.3242 -1.0274
-1.5179 3.4587 -2.6220
0.2812 2.3223 -4.0915
0.6017 -0.6388 -1.0035
0.1649 -0.5212 0.0641
0.2217 -4.3994 0.2508
-1.1105 -4.7086 1.0650
0.0043 -0.0096 0.0476
-2.0094 -1.7094 0.0074
-0.7173 0.3601 2.3432
2.2475 -0.3210 -0.6390
-0.6773 -0.4133 1.2795
2.1067 1.5706 1.5729
-0.1183 -2.3353 -0.5927
0.5455 0.1243 -0.9011
-1.5464 -0.4758 1.1984
-1.6478 -1.0369 1.2717
-1.2249 1.0388 1.0837
-1.3832 0.1850 3.1864
-1.7195 -0.1973 2.6003
-3.6320 0.8286 1.5525
1.2890 0.6747 -1.2963
-1.0731 3.3032 0.6862
-0.0581 -0.0581 -0.2305
-1.3707 1.5452 -0.3662
3.8216 0.3514 1.9471
-1.0136 -0.3937 1.4181
-1.9045 -1.6878 0.1682
-1.2723 0.0544 -3.3805
1.8153 0.1108 4.6275
-0.6649 0.3765 -0.2754
2.2212 1.1550 1.4453
-0.2793 0.9603 -0.6287
0.4712 -1.9536 0.2959
-1.0394 -1.5229 0.0724
0.1970 -1.5714 -1.2287
-1.0843 -0.9202 0.1919
0.4297 1.8213 -0.7139
0.0812 0.0485 0.0737
-1.2775 -0.7005 1.3412
2.4726 0.7864 -0.5812
-1.0677 -1.0961 0.7768
0.1177 0.1250 -0.1291
-0.2725 1.3999 -2.2199
1.9877 -1.4728 -0.9592
-1.0061 -0.8210 -1.1725
0.6561 0.2877 0.0160
-0.5543 3.4406 -0.5203
-0.3543 0.0704 -0.2930
1.3673 0.3827 -0.5724
-1.2195 0.8892 0.2515
0.0846 0.3445 -0.1990
1.6899 0.0058 0.2090
1.2140 -0.6375 0.6608
0.5398 -0.5353 -0.7216
-1.3475 2.9742 -1.8294
1.3460 -0.9004 -1.2017
3.7183 -0.6388 -0.4879
-2.5171 -0.1665 -0.5466
-0.5224 -0.1839 -1.2511
0.4680 -0.5427 -3.1055
2.0525 2.1125 0.3781
-0.7399 -1.3683 -3.0547
-0.6171 0.3035 0.2951
-0.0085 0.0217 0.0304
1.1286 3.8078 -0.2362
-1.2922 -0.8094 -0.4495
-2.3378 4.0110 -0.9005
1.4607 -2.7193 -3.2312
0.1491 0.3037 0.2791
-3.8383 1.3403 1.2339
0.0010 -0.0154 0.0031
2.9545 -2.9707 -1.7488
-0.6847 -0.5109 2.6773
-1.0241 -0.8875 1.4329
0.8791 1.5751 -3.9130
0.0306 -2.8278 -3.2771
0.8417 -0.9341 -1.1388
3.6280 -2.0893 0.8554
0.5265 -0.5231 0.7942
-1.2756 0.1911 1.5899
2.4679 1.7988 -0.0095
-1.4884 2.0033 -2.5662
0.4424 -3.9624 -2.2429
2.0862 -0.2637 -3.9650
-1.6587 -0.6123 -0.6221
0.6526 -1.7254 -0.6991
-1.5871 2.2784 -2.0549
-3.0107 -1.8995 -1.0960
1.4083 2.2422 0.7457
-2.6675 -3.4104 -1.9636
-2.2181 -1.4992 -0.9172
2.3212 -1.8818 -0.1469
-0.1398 0.1227 -0.3320
0.4842 0.8969 0.3219
0.6363 0.5312 0.8486
0.1338 -0.9895 1.3539
0.0131 0.4142 2.8729
0.2340 0.6506 0.3878
0.9094 -0.4566 -1.7892
0.0912 1.2740 0.2861
0.7836 -2.0705 -1.5626
-2.1078 1.0832 2.1742
-0.3268 0.6496 0.0330
-0.5407 -0.0358 -1.2318
-4.2982 -0.3887 -0.6635
1.5056 1.2254 -1.0883
-1.5765 0.3324 0.6906
1.9623 0.8776 1.0018
0.6160 -0.0071 -3.2622
1.9205 2.9884 0.8897
-1.1256 0.5101 1.9754
1.1537 -2.9367 -1.6230
-0.9618 0.8683 1.4864
-0.5888 -3.5507 0.0968
1.3774 0.5620 -3.6910
0.1084 -0.9907 0.8584
0.6847 -0.5880 4.2255
1.0151 1.5355 2.2436
-0.5096 0.3129 0.0820
-0.2851 -2.0476 -1.7877
2.6226 1.4343 3.3879
0.4389 -4.7382 -1.1173
0.3487 -3.8436 2.0009
0.3977 -3.8339 -0.3840
1.6193 -1.8292 2.8500
-1.2257 1.8218 -0.8605
-1.3384 0.4942 -4.6681
1.8785 1.7034 1.3858
-2.9234 3.0133 -0.9306
1.5191 1.7588 2.3970
3.1378 -1.1513 0.5528
0.1062 1.0858 0.1086
-1.3289 1.0573 -1.7169
0.2398 -0.3006 0.0687
3.2149 -0.2683 2.0848
-1.1498 3.0338 -1.9372
0.1671 0.4181 2.5137
-0.3007 -0.1607 -0.1842
-3.8825 0.3384 0.1007
0.3326 -4.5839 -0.3522
-1.6006 1.1668 0.2142
1.2255 -2.4977 0.0501
-2.3004 2.3198 -0.1744
-0.2383 -3.7636 -2.7111
-3.0214 -0.1215 -2.8052
-1.7882 -1.9896 0.8622
1.3872 1.4295 1.6138
1.1775 2.7002 -2.0857
0.8263 2.5473 1.1368
2.8800 -0.5360 1.6553
-0.3065 0.4444 -0.1343
-1.9224 0.8158 -1.1531
0.5020 0.3571 0.9243
-0.6933 -2.3326 -0.0127
-0.2233 2.2037 -0.9734
1.2344 0.1434 2.6080
-0.4285 0.1951 0.4952
-0.2190 -4.1571 2.5442
2.6478 -0.6506 3.7602
0.6406 0.3331 0.1174
-0.0662 0.7909 0.3955
0.2495 -1.0013 0.1151
0.1373 -0.8873 3.9798
-2.5269 2.1978 -0.0680
-1.4811 -0.8780 3.9716
-0.0327 2.5729 -1.3211
-1.9258 1.4949 -0.7260
0.3249 0.0519 -1.0594
0.6765 -4.2943 1.4880
1.6957 -3.4137 2.9924
0.0437 0.5995 0.0826
3.9806 0.3671 0.6740
0.2302 0.5347 -1.9806
-1.7212 2.9177 0.0051
-0.1350 -0.2514 0.0125
1.8462 0.9661 -3.5740
-0.1803 -4.4657 1.3594
-0.1043 -0.9303 -0.6825
-1.0598 0.8506 4.0360
-2.6076 -0.1329 2.2599
0.1427 1.7080 0.0916
1.3716 -2.5309 0.0783
3.4863 0.1706 0.9533
0.5637 -0.1237 -0.8996
3.3352 -2.5265 0.9006
-0.0863 3.6944 -1.2775
-0.2261 -0.0886 0.0328
1.8973 2.9543 -3.0337
2.0743 -0.0155 2.2536
4.2355 -1.2282 -1.7051
0.9806 0.4610 0.8581
-2.5026 0.0074 -0.2325
0.2400 0.1971 0.3588
-0.2536 0.6547 -0.5711
-0.2845 -0.7296 -0.1383
-0.1323 4.0127 -2.4709
2.4939 -1.3182 -2.0834
-0.4512 2.3319 -2.0695
0.4755 -1.3930 3.4114
3.0753 -1.5271 -1.6404
-0.8281 0.2024 -0.4880
-0.2968 -0.8280 0.8070
2.3061 -0.2284 4.1702
-2.7239 -0.3303 -1.9488
1.5359 -0.5002 2.4669
-1.4410 3.5201 0.0137
3.3471 -1.1753 3.4928
-1.0724 -2.0626 2.2076
0.4434 -1.6192 -3.6075
-0.4764 -1.3347 1.8126
3.4515 -1.1280 0.9900
1.7412 -2.1545 1.9654
-2.0717 3.9928 -0.9450
1.2956 0.8803 -1.4401
0.2295 -0.1988 0.3340
-1.1063 -0.7889 0.0059
0.3832 0.2900 -0.4012
1.3224 1.5029 -1.6592
1.0368 1.4590 -2.9268
-3.7131 -1.4387 -0.3254
0.2149 -0.0119 1.5290
1.5676 -1.9340 0.1516
3.9065 -1.2757 0.4260
0.0464 -0.7565 0.7219
3.0445 -0.1148 0.9921
0.2831 0.4369 2.7514
-0.1850 -3.2663 -1.9608
-0.1370 -0.4110 0.0809
0.4012 0.5692 0.2375
-1.0446 -3.8223 0.8171
-0.4882 -2.0434 -0.3625
-1.1974 0.8202 -2.6749
0.3084 -0.5709 -1.5470
-1.8188 3.6322 1.7362
1.0308 0.3990 -1.6277
1.1762 0.2717 -1.4333
3.6452 -0.8523 -0.6754
0.8981 0.8312 -1.7903
-1.3807 -0.4443 -0.6017
1.3176 -0.2164 -1.3291
-1.4613 1.4519 1.3535
0.1803 0.0148 -0.1683
3.7602 1.8128 1.7096
0.7433 4.0816 -0.4693
0.4402 1.4832 -3.3883
-1.8590 -0.7481 4.5696
0.7342 0.0021 0.4303
1.4172 2.7756 1.3869
-3.1837 0.1872 -0.4000
-0.2675 1.4636 0.8511
-1.0990 -1.8362 -3.0324
0.3769 0.0338 -0.4281
-0.0893 0.1331 -0.7885
-0.2167 0.2764 0.0464
0.7205 1.2249 0.4684
1.7586 0.8160 -0.8182
0.4246 0.6000 -1.2899
-0.2609 0.1248 0.2119
0.8975 3.8547 -0.7794
-0.4530 -0.0024 1.3934
-0.4289 3.6094 -0.3487
0.1372 -1.3350 0.3122
-2.3848 -0.4147 -1.0329
-1.2330 0.1358 2.0077
-1.6908 1.9576 -0.9186
0.6602 0.6580 1.0601
3.5183 1.8385 -0.3536
-0.1980 1.1917 1.4225
-1.7321 3.3870 -1.3634
0.4002 1.6441 -0.8571
-2.7973 -1.6599 -0.8778
-0.1336 -0.2396 0.8196
2.9886 1.4773 -1.6960
0.6398 0.4703 -1.0496
0.9849 0.7276 1.1766
0.3333 2.0987 -0.4632
-0.0098 -0.0510 -0.0514
1.9930 3.1932 -2.0539
-2.0072 -1.5890 -1.2905
0.9942 1.4442 -0.2903
0.1811 -0.0961 0.4035
2.5790 0.0333 1.5595
-2.8539 1.6695 0.7519
-0.8652 1.1556 0.3306
1.0199 4.1914 -0.4357
-3.2551 2.0410 -0.3962
-4.1256 2.5219 1.2324
-1.2278 -0.4209 -0.7732
1.6226 -0.8425 -2.5933
3.2256 0.0696 -1.9423
0.0486 0.0558 2.8603
-1.5835 0.1015 -0.2611
-2.8562 -2.0308 -0.7723
0.7924 -2.0028 3.1994
-0.9774 -1.3301 2.2452
-0.3135 2.5477 -1.1269
-0.7973 -1.0459 -2.6278
0.0070 0.1127 -1.4247
0.6910 -0.9025 -0.6284
0.9873 -3.6467 0.9267
-2.1410 -1.6594 -0.7770
1.4039 1.7375 0.3260
0.4277 0.4109 -0.1119
1.8647 1.3067 0.3849
-0.7289 -2.1797 0.0846
-1.0267 0.5093 -0.5051
-1.0239 -3.6474 -2.6020
0.6550 -0.3449 2.8009
-0.4551 0.2836 -0.2554
-0.4834 -0.3332 0.8500
-0.4096 0.1236 0.2727
2.5746 1.5110 -2.6046
2.3821 2.6714 -0.3374
-0.6842 0.9816 -4.1796
-0.4139 -0.9606 -0.6785
2.4760 -2.1653 1.7397
0.4745 0.3668 1.3730
0.7470 2.4976 0.0643
0.0650 -0.1476 0.0276
-0.3081 -0.6462 1.1911
-2.5731 2.0293 0.9792
-0.2665 0.6940 2.1247
0.1337 2.2534 2.3417
-0.0574 1.4770 0.3169
-1.1172 -1.6938 1.5234
-0.2541 0.8900 0.3472
2.0613 -1.7023 -0.0824
1.5149 4.4943 -0.3775
0.1756 -0.1673 -0.2610
-0.1920 -0.2445 -0.2260
0.4991 1.1869 -1.6304
-0.6634 -1.6780 -1.2234
-0.4074 1.6146 -1.1703
-0.0699 -0.1398 -0.1033
-0.3198 -1.9978 0.1734
-0.4075 1.3512 -0.7626
1.6057 -0.5969 -2.5920
-0.1642 1.0799 0.4154
1.5773 0.1711 2.4980
3.8734 2.4561 -1.7081
2.5230 0.9339 -1.2374
0.6273 -1.3598 -1.3149
0.7001 -0.2876 -0.7575
-3.0824 -3.1297 -1.4124
-0.0199 0.0328 0.0673
1.0066 -0.7608 3.4120
0.5487 2.2205 1.3073
2.7421 0.2997 2.2964
1.0235 0.0536 0.9352
0.3740 -0.4409 0.5693
-0.3191 -0.7734 1.3537
-2.7294 1.6409 3.4802
-2.8639 1.6927 0.4476
2.9864 -3.4485 1.1283
-0.5427 -0.6489 0.2227
0.5831 -2.9497 -1.4189
